0.000000 0.000000 0.000000
0.000000 0.000000 0.000000
0.000000 0.000000 0.000000
0.000000 0.000000 0.000000
0.000000 0.000000 0.000000
0.000000 0.000000 0.000000
0.000000 0.000000 0.000000
0.000000 0.000000 0.000000
0.000000 0.000000 0.000000
0.000000 0.000000 0.000000
0.000000 0.000000 0.000000
0.000000 0.000000 0.000000
0.000000 0.000000 0.000000
0.000000 0.000000 0.000000
-0.186923 -0.016406 0.982237
-0.186923 -0.016406 0.982237
-0.420741 -0.027847 1.954451
-0.683825 -0.008467 2.919029
-0.918819 -0.029402 3.890800
-1.195578 0.010403 4.850915
-1.561950 -0.001489 5.781307
-1.915723 -0.047001 6.715531
-2.367963 -0.014985 7.606852
-2.928882 -0.010888 8.434713
-3.476592 -0.023170 9.271291
-3.915434 -0.042823 10.169640
-4.504279 -0.059440 10.977715
-5.177951 -0.067635 11.716700
-5.937469 -0.081686 12.367035
-6.712885 -0.054647 12.997906
-7.470781 -0.046877 13.650236
-8.289747 -0.050622 14.224066
-9.139645 -0.039269 14.750889
-10.018656 -0.034715 15.227670
-10.906647 -0.027425 15.687473
-11.803015 -0.032882 16.130749
-12.723901 -0.053176 16.520054
-13.675160 -0.049272 16.828423
-14.634950 -0.048788 17.109141
-15.600859 -0.036560 17.367735
-16.572342 -0.025105 17.604565
-17.547160 -0.031134 17.827485
-18.526958 -0.033655 18.027461
-19.513140 -0.028374 18.193041
-20.499236 -0.034705 18.359095
-21.486423 -0.038248 18.518624
-22.473059 -0.061899 18.679839
-23.459345 -0.060856 18.844882
-24.448587 -0.062413 18.991162
-25.437891 -0.061953 19.137027
-26.424237 -0.058228 19.301676
-27.406028 -0.061051 19.491615
-28.395645 -0.064451 19.635306
-29.381151 -0.058668 19.804852
-30.366825 -0.049492 19.973263
-31.342299 -0.023272 20.191807
-32.331677 -0.016768 20.337033
-33.319297 -0.008782 20.493690
-34.302863 0.006906 20.673556
-35.286106 0.013614 20.855732
-36.266241 0.021207 21.053919
-37.246292 0.016847 21.252620
-38.227692 0.030236 21.444123
-39.212376 0.048296 21.617535
-40.198266 0.054464 21.784817
-41.171656 0.047950 22.013880
-42.154429 0.035957 22.198306
-43.139793 0.028702 22.368617
-44.118972 0.034747 22.571523
-45.106983 0.035918 22.725904
-46.089460 0.032926 22.912265
-47.075624 0.043743 23.077682
-48.062198 0.049481 23.240896
-49.048752 0.057375 23.404143
-50.034628 0.059871 23.571597
-51.022904 0.063920 23.724225
-52.009729 0.065370 23.886011
-52.994313 0.065196 24.060924
-53.976865 0.043131 24.245595
-54.972923 0.053134 24.333739
-55.962832 0.050987 24.475422
-56.946608 0.051303 24.654827
-57.934898 0.062523 24.806998
-58.923189 0.063256 24.959576
-59.907462 0.075773 25.135789
-60.902548 0.104340 25.230591
-61.889283 0.089732 25.392272
-62.860254 0.074354 25.630975
-63.844680 0.080661 25.806660
-64.818023 0.084680 26.035979
-65.806135 0.088381 26.189671
-66.788553 0.067606 26.375206
-67.773394 0.055368 26.548232
-68.762237 0.043623 26.696729
-69.748397 0.024153 26.861382
-70.737137 0.014338 27.010701
-71.722305 0.018378 27.182246
-72.710495 0.013407 27.335400
-73.698769 -0.004682 27.487014
-74.688574 -0.017370 27.628877
-75.674557 -0.027226 27.795430
-76.666391 -0.032683 27.922849
-77.648235 -0.046737 28.112018
-78.629254 -0.051854 28.305864
-79.610910 -0.051792 28.496526
-80.595497 -0.053507 28.671409
-81.583788 -0.063905 28.823636
-82.571928 -0.062418 28.977186
-83.554667 -0.081644 29.161184
-84.540141 -0.082186 29.331005
-85.525848 -0.082617 29.499473
-86.517519 -0.083378 29.628269
-87.505292 -0.094607 29.783766
-88.492230 -0.110112 29.944119
-89.480120 -0.108896 30.099270
-90.457955 -0.102935 30.308559
-91.437039 -0.098863 30.511978
-92.414655 -0.100034 30.722369
-93.383973 -0.117707 30.967542
-94.350040 -0.107606 31.225636
-95.314626 -0.110294 31.489393
-96.271818 -0.140559 31.777259
-97.204662 -0.146345 32.137495
-98.149056 -0.131435 32.465971
-99.038861 -0.121015 32.922192
-99.958521 -0.138970 33.314498
-100.825950 -0.143717 33.812037
-101.572556 -0.153152 34.477237
-102.297577 -0.145344 35.165918
-103.052472 -0.133933 35.821665
-103.745751 -0.116674 36.542128
-104.400314 -0.114884 37.298133
-105.093242 -0.099607 38.018978
-105.662707 -0.078830 38.840731
-106.172342 -0.059409 39.700903
-106.680311 -0.082200 40.561976
-107.161966 -0.061337 41.438089
-107.564427 -0.048414 42.353435
-107.921035 -0.012537 43.287000
-108.173540 -0.023014 44.254539
-108.431637 -0.039952 45.220509
-108.622299 -0.021462 46.201991
-108.796868 -0.043746 47.186383
-108.921729 -0.060667 48.178413
-109.043649 -0.054276 49.170933
-109.098570 -0.062796 50.169387
-109.127060 -0.084255 51.168751
-109.170352 -0.077588 52.167791
-109.139747 -0.061434 53.167192
-109.131484 -0.053155 54.167124
-109.113265 -0.047002 55.166939
-109.088619 -0.049685 56.166631
-108.944371 -0.044778 57.156161
-108.868259 -0.044008 58.153260
-108.774466 -0.047663 59.148845
-108.682780 -0.047834 60.144633
-108.582313 -0.044700 61.139568
-108.439322 -0.025835 62.129112
-108.313640 -0.023312 63.121180
